# .PCD v0.7 - Point Cloud Data file format
VERSION 0.7
FIELDS x y z
SIZE 4 4 4
TYPE F F F
COUNT 1 1 1
WIDTH 2193
HEIGHT 1
VIEWPOINT 0 0 0 1 0 0 0
POINTS 2193
DATA ascii
4 7.3000002 25.5
4 7.1999998 25.5
4 7.0999999 14.213699
4 7 25.5
4 6.9000001 25.5
4 6.8000002 25.5
4 6.6999998 25.5
4 6.5999999 25.5
4 6.5 25.5
4 6.4000001 14.5248
4 6.3000002 25.5
4 6.1999998 25.5
4 6.0999999 25.5
4 6 14.280001
4 5.9000001 14.3922
4 5.8000002 25.5
4 5.6999998 25.5
4 5.5999999 14.835899
4 5.5 14.6523
4 5.4000001 25.5
4 5.3000002 25.5
4 5.1999998 14.509501
4 5.0999999 25.5
4 5 14.5554
4 4.9000001 25.5
4 4.8000002 14.6625
4 4.6999998 25.5
4 4.5999999 25.5
4 4.5 25.5
4 4.4000001 25.5
4 4.3000002 25.5
4 4.1999998 15.034801
4 4.0999999 25.5
4 4 25.5
4 3.9000001 14.8104
4 3.8 15.534599
4 3.7 25.5
4 3.5999999 25.5
4 3.5 25.5
4 3.4000001 25.5
4 3.3 25.5
4 3.2 14.7186
4 3.0999999 25.5
4 3 25.5
4 2.9000001 25.5
4 2.8 25.5
4 2.7 25.5
4 2.5999999 25.5
4 2.5 25.5
4 2.4000001 25.5
4 2.3 25.5
4 2.2 25.5
4 2.0999999 25.5
4 2 25.5
4 1.9 25.5
4 1.8 25.5
4 1.7 25.5
4 1.6 25.5
4 1.5 25.5
4 1.4 25.5
4 1.3 25.5
4 1.2 25.5
4 1.1 25.5
4 1 25.5
4 0.89999998 25.5
4 0.80000001 25.5
4 0.69999999 25.5
4 0.60000002 25.5
4 0.5 25.5
4 0.40000001 25.5
4 0.30000001 25.5
4 0.2 25.5
4 0.1 25.5
4.0999999 13.2 0
4.0999999 13.1 13.6425
4.0999999 13 25.5
4.0999999 12.9 25.5
4.0999999 12.8 25.5
4.0999999 12.7 25.5
4.0999999 12.6 25.5
4.0999999 12.5 25.5
4.0999999 12.4 25.5
4.0999999 12.3 25.5
4.0999999 12.2 25.5
4.0999999 12.1 25.5
4.0999999 12 25.5
4.0999999 11.9 25.5
4.0999999 11.8 25.5
4.0999999 11.7 25.5
4.0999999 11.6 14.739
4.0999999 11.5 14.7951
4.0999999 11.4 15.243899
4.0999999 11.3 15.1776
4.0999999 11.2 15.4275
4.0999999 11.1 14.8818
4.0999999 11 14.835899
4.0999999 10.9 15.3
4.0999999 10.8 25.5
4.0999999 10.7 25.5
4.0999999 10.6 25.5
4.0999999 10.5 25.5
4.0999999 10.4 25.5
4.0999999 10.3 14.698199
4.0999999 10.2 25.5
4.0999999 10.1 25.5
4.0999999 10 25.5
4.0999999 9.8999996 25.5
4.0999999 9.8000002 25.5
4.0999999 9.6999998 25.5
4.0999999 9.6000004 14.6421
4.0999999 9.5 25.5
4.0999999 9.3999996 25.5
4.0999999 9.3000002 14.841001
4.0999999 9.1999998 25.5
4.0999999 9.1000004 25.5
4.0999999 9 25.5
4.0999999 8.8999996 15.034801
4.0999999 8.8000002 25.5
4.0999999 8.6999998 25.5
4.0999999 8.6000004 25.5
4.0999999 8.5 25.5
4.0999999 8.3999996 25.5
4.0999999 8.3000002 14.9175
4.0999999 8.1999998 25.5
4.0999999 8.1000004 25.5
4.0999999 8 14.5146
4.0999999 7.9000001 14.244299
4.0999999 7.8000002 25.5
4.0999999 7.6999998 25.5
4.0999999 7.5999999 14.4024
4.0999999 7.5 14.698199
4.0999999 7.4000001 25.5
4.0999999 7.3000002 25.5
4.0999999 7.1999998 14.3718
4.0999999 7.0999999 14.698199
4.0999999 7 25.5
4.0999999 6.9000001 25.5
4.0999999 6.8000002 14.509501
4.0999999 6.6999998 14.8002
4.0999999 6.5999999 25.5
4.0999999 6.5 25.5
4.0999999 6.4000001 14.218801
4.0999999 6.3000002 14.5146
4.0999999 6.1999998 25.5
4.0999999 6.0999999 15.2847
4.0999999 6 14.4942
4.0999999 5.9000001 14.7033
4.0999999 5.8000002 25.5
4.0999999 5.6999998 25.5
4.0999999 5.5999999 14.789999
4.0999999 5.5 25.5
4.0999999 5.4000001 25.5
4.0999999 5.3000002 25.5
4.0999999 5.1999998 25.5
4.0999999 5.0999999 25.5
4.0999999 5 25.5
4.0999999 4.9000001 25.5
4.0999999 4.8000002 15.141901
4.0999999 4.6999998 15.1164
4.0999999 4.5999999 14.876699
4.0999999 4.5 25.5
4.0999999 4.4000001 14.636999
4.0999999 4.3000002 25.5
4.0999999 4.1999998 25.5
4.0999999 4.0999999 25.5
4.0999999 4 25.5
4.0999999 3.9000001 25.5
4.0999999 3.8 25.5
4.0999999 3.7 25.5
4.0999999 3.5999999 25.5
4.0999999 3.5 25.5
4.0999999 3.4000001 14.8155
4.0999999 3.3 25.5
4.0999999 3.2 15.488699
4.0999999 3.0999999 25.5
4.0999999 3 25.5
4.0999999 2.9000001 25.5
4.0999999 2.8 25.5
4.0999999 2.7 25.5
4.0999999 2.5999999 25.5
4.0999999 2.5 25.5
4.0999999 2.4000001 25.5
4.0999999 2.3 25.5
4.0999999 2.2 25.5
4.0999999 2.0999999 25.5
4.0999999 2 25.5
4.0999999 1.9 25.5
4.0999999 1.8 25.5
4.0999999 1.7 25.5
4.0999999 1.6 25.5
4.0999999 1.5 25.5
4.0999999 1.4 25.5
4.0999999 1.3 25.5
4.0999999 1.2 25.5
4.0999999 1.1 25.5
4.0999999 1 25.5
4.0999999 0.89999998 25.5
4.0999999 0.80000001 25.5
4.0999999 0.69999999 25.5
4.0999999 0.60000002 25.5
4.0999999 0.5 25.5
4.0999999 0.40000001 25.5
4.0999999 0.30000001 25.5
4.0999999 0.2 25.5
4.0999999 0.1 25.5
4.1999998 13.2 -3.5228692e-20
4.1999998 13.1 13.6272
4.1999998 13 13.6272
4.1999998 12.9 25.5
4.1999998 12.8 25.5
4.1999998 12.7 25.5
4.1999998 12.6 25.5
4.1999998 12.5 25.5
4.1999998 12.4 25.5
4.1999998 12.3 25.5
4.1999998 12.2 25.5
4.1999998 12.1 25.5
4.1999998 12 25.5
4.1999998 11.9 25.5
4.1999998 11.8 25.5
4.1999998 11.7 25.5
4.1999998 11.6 15.034801
4.1999998 11.5 14.953199
4.1999998 11.4 25.5
4.1999998 11.3 25.5
4.1999998 11.2 25.5
4.1999998 11.1 25.5
4.1999998 11 25.5
4.1999998 10.9 25.5
4.1999998 10.8 25.5
4.1999998 10.7 25.5
4.1999998 10.6 25.5
4.1999998 10.5 25.5
4.1999998 10.4 25.5
4.1999998 10.3 15.4428
4.1999998 10.2 25.5
4.1999998 10.1 14.902201
4.1999998 10 25.5
4.1999998 9.8999996 25.5
4.1999998 9.8000002 25.5
4.1999998 9.6999998 25.5
4.1999998 9.6000004 25.5
4.1999998 9.5 25.5
4.1999998 9.3999996 25.5
4.1999998 9.3000002 25.5
4.1999998 9.1999998 25.5
4.1999998 9.1000004 15.3306
4.1999998 9 25.5
4.1999998 8.8999996 15.0399
4.1999998 8.8000002 25.5
4.1999998 8.6999998 14.3157
4.1999998 8.6000004 25.5
4.1999998 8.5 25.5
4.1999998 8.3999996 14.6064
4.1999998 8.3000002 14.5044
4.1999998 8.1999998 25.5
4.1999998 8.1000004 25.5
4.1999998 8 14.7543
4.1999998 7.9000001 25.5
4.1999998 7.8000002 25.5
4.1999998 7.6999998 25.5
4.1999998 7.5999999 25.5
4.1999998 7.5 25.5
4.1999998 7.4000001 25.5
4.1999998 7.3000002 25.5
4.1999998 7.1999998 25.5
4.1999998 7.0999999 25.5
4.1999998 7 25.5
4.1999998 6.9000001 25.5
4.1999998 6.8000002 25.5
4.1999998 6.6999998 25.5
4.1999998 6.5999999 25.5
4.1999998 6.5 25.5
4.1999998 6.4000001 25.5
4.1999998 6.3000002 25.5
4.1999998 6.1999998 25.5
4.1999998 6.0999999 25.5
4.1999998 6 25.5
4.1999998 5.9000001 14.290199
4.1999998 5.8000002 25.5
4.1999998 5.6999998 25.5
4.1999998 5.5999999 13.8669
4.1999998 5.5 14.3871
4.1999998 5.4000001 25.5
4.1999998 5.3000002 25.5
4.1999998 5.1999998 14.5911
4.1999998 5.0999999 14.9379
4.1999998 5 25.5
4.1999998 4.9000001 25.5
4.1999998 4.8000002 14.8104
4.1999998 4.6999998 25.5
4.1999998 4.5999999 25.5
4.1999998 4.5 25.5
4.1999998 4.4000001 25.5
4.1999998 4.3000002 25.5
4.1999998 4.1999998 25.5
4.1999998 4.0999999 25.5
4.1999998 4 25.5
4.1999998 3.9000001 25.5
4.1999998 3.8 25.5
4.1999998 3.7 15.3408
4.1999998 3.5999999 25.5
4.1999998 3.5 25.5
4.1999998 3.4000001 14.6625
4.1999998 3.3 25.5
4.1999998 3.2 25.5
4.1999998 3.0999999 25.5
4.1999998 3 25.5
4.1999998 2.9000001 25.5
4.1999998 2.8 25.5
4.1999998 2.7 25.5
4.1999998 2.5999999 25.5
4.1999998 2.5 25.5
4.1999998 2.4000001 25.5
4.1999998 2.3 25.5
4.1999998 2.2 25.5
4.1999998 2.0999999 25.5
4.1999998 2 25.5
4.1999998 1.9 25.5
4.1999998 1.8 25.5
4.1999998 1.7 25.5
4.1999998 1.6 25.5
4.1999998 1.5 25.5
4.1999998 1.4 25.5
4.1999998 1.3 25.5
4.1999998 1.2 25.5
4.1999998 1.1 25.5
4.1999998 1 25.5
4.1999998 0.89999998 25.5
4.1999998 0.80000001 25.5
4.1999998 0.69999999 25.5
4.1999998 0.60000002 25.5
4.1999998 0.5 25.5
4.1999998 0.40000001 25.5
4.1999998 0.30000001 25.5
4.1999998 0.2 25.5
4.1999998 0.1 25.5
4.3000002 13.2 3.3631163e-44
4.3000002 13.1 13.632299
4.3000002 13 13.8312
4.3000002 12.9 13.9587
4.3000002 12.8 14.550301
4.3000002 12.7 25.5
4.3000002 12.6 25.5
4.3000002 12.5 25.5
4.3000002 12.4 25.5
4.3000002 12.3 25.5
4.3000002 12.2 25.5
4.3000002 12.1 25.5
4.3000002 12 25.5
4.3000002 11.9 25.5
4.3000002 11.8 25.5
4.3000002 11.7 25.5
4.3000002 11.6 25.5
4.3000002 11.5 25.5
4.3000002 11.4 25.5
4.3000002 11.3 25.5
4.3000002 11.2 25.5
4.3000002 11.1 25.5
4.3000002 11 25.5
4.3000002 10.9 25.5
4.3000002 10.8 25.5
4.3000002 10.7 25.5
4.3000002 10.6 25.5
4.3000002 10.5 25.5
4.3000002 10.4 25.5
4.3000002 10.3 25.5
4.3000002 10.2 25.5
4.3000002 10.1 15.233701
4.3000002 10 15.065401
4.3000002 9.8999996 25.5
4.3000002 9.8000002 25.5
4.3000002 9.6999998 25.5
4.3000002 9.6000004 25.5
4.3000002 9.5 25.5
4.3000002 9.3999996 25.5
4.3000002 9.3000002 25.5
4.3000002 9.1999998 25.5
4.3000002 9.1000004 25.5
4.3000002 9 25.5
4.3000002 8.8999996 25.5
4.3000002 8.8000002 25.5
4.3000002 8.6999998 14.473801
4.3000002 8.6000004 25.5
4.3000002 8.5 25.5
4.3000002 8.3999996 14.4381
4.3000002 8.3000002 14.7798
4.3000002 8.1999998 25.5
4.3000002 8.1000004 25.5
4.3000002 8 14.4024
4.3000002 7.9000001 14.8002
4.3000002 7.8000002 25.5
4.3000002 7.6999998 25.5
4.3000002 7.5999999 14.6625
4.3000002 7.5 14.942999
4.3000002 7.4000001 25.5
4.3000002 7.3000002 25.5
4.3000002 7.1999998 14.3259
4.3000002 7.0999999 14.535001
4.3000002 7 25.5
4.3000002 6.9000001 25.5
4.3000002 6.8000002 14.473801
4.3000002 6.6999998 14.7441
4.3000002 6.5999999 25.5
4.3000002 6.5 25.5
4.3000002 6.4000001 14.3157
4.3000002 6.3000002 14.7441
4.3000002 6.1999998 25.5
4.3000002 6.0999999 25.5
4.3000002 6 14.7288
4.3000002 5.9000001 14.550301
4.3000002 5.8000002 25.5
4.3000002 5.6999998 25.5
4.3000002 5.5999999 14.3157
4.3000002 5.5 14.545199
4.3000002 5.4000001 25.5
4.3000002 5.3000002 25.5
4.3000002 5.1999998 25.5
4.3000002 5.0999999 25.5
4.3000002 5 25.5
4.3000002 4.9000001 25.5
4.3000002 4.8000002 25.5
4.3000002 4.6999998 25.5
4.3000002 4.5999999 25.5
4.3000002 4.5 25.5
4.3000002 4.4000001 25.5
4.3000002 4.3000002 25.5
4.3000002 4.1999998 14.8206
4.3000002 4.0999999 25.5
4.3000002 4 25.5
4.3000002 3.9000001 14.7237
4.3000002 3.8 15.0858
4.3000002 3.7 25.5
4.3000002 3.5999999 25.5
4.3000002 3.5 25.5
4.3000002 3.4000001 25.5
4.3000002 3.3 25.5
4.3000002 3.2 25.5
4.3000002 3.0999999 25.5
4.3000002 3 25.5
4.3000002 2.9000001 25.5
4.3000002 2.8 25.5
4.3000002 2.7 25.5
4.3000002 2.5999999 25.5
4.3000002 2.5 25.5
4.3000002 2.4000001 25.5
4.3000002 2.3 25.5
4.3000002 2.2 25.5
4.3000002 2.0999999 25.5
4.3000002 2 25.5
4.3000002 1.9 25.5
4.3000002 1.8 25.5
4.3000002 1.7 25.5
4.3000002 1.6 25.5
4.3000002 1.5 25.5
4.3000002 1.4 25.5
4.3000002 1.3 25.5
4.3000002 1.2 25.5
4.3000002 1.1 25.5
4.3000002 1 25.5
4.3000002 0.89999998 25.5
4.3000002 0.80000001 25.5
4.3000002 0.69999999 25.5
4.3000002 0.60000002 25.5
4.3000002 0.5 25.5
4.3000002 0.40000001 25.5
4.3000002 0.30000001 25.5
4.3000002 0.2 25.5
4.3000002 0.1 25.5
4.4000001 13.2 -3.5228711e-20
4.4000001 13.1 13.606799
4.4000001 13 13.8159
4.4000001 12.9 14.0199
4.4000001 12.8 14.433001
4.4000001 12.7 14.3157
4.4000001 12.6 14.2851
4.4000001 12.5 25.5
4.4000001 12.4 25.5
4.4000001 12.3 25.5
4.4000001 12.2 25.5
4.4000001 12.1 25.5
4.4000001 12 25.5
4.4000001 11.9 25.5
4.4000001 11.8 25.5
4.4000001 11.7 25.5
4.4000001 11.6 25.5
4.4000001 11.5 25.5
4.4000001 11.4 25.5
4.4000001 11.3 25.5
4.4000001 11.2 25.5
4.4000001 11.1 25.5
4.4000001 11 25.5
4.4000001 10.9 25.5
4.4000001 10.8 25.5
4.4000001 10.7 25.5
4.4000001 10.6 25.5
4.4000001 10.5 15.1878
4.4000001 10.4 25.5
4.4000001 10.3 25.5
4.4000001 10.2 25.5
4.4000001 10.1 25.5
4.4000001 10 25.5
4.4000001 9.8999996 25.5
4.4000001 9.8000002 25.5
4.4000001 9.6999998 15.0399
4.4000001 9.6000004 25.5
4.4000001 9.5 14.545199
4.4000001 9.3999996 25.5
4.4000001 9.3000002 15.371401
4.4000001 9.1999998 25.5
4.4000001 9.1000004 14.468699
4.4000001 9 25.5
4.4000001 8.8999996 25.5
4.4000001 8.8000002 25.5
4.4000001 8.6999998 25.5
4.4000001 8.6000004 25.5
4.4000001 8.5 25.5
4.4000001 8.3999996 25.5
4.4000001 8.3000002 25.5
4.4000001 8.1999998 25.5
4.4000001 8.1000004 25.5
4.4000001 8 25.5
4.4000001 7.9000001 25.5
4.4000001 7.8000002 25.5
4.4000001 7.6999998 25.5
4.4000001 7.5999999 14.866499
4.4000001 7.5 25.5
4.4000001 7.4000001 25.5
4.4000001 7.3000002 25.5
4.4000001 7.1999998 14.3412
4.4000001 7.0999999 14.2239
4.4000001 7 25.5
4.4000001 6.9000001 25.5
4.4000001 6.8000002 14.3616
4.4000001 6.6999998 13.9587
4.4000001 6.5999999 25.5
4.4000001 6.5 25.5
4.4000001 6.4000001 25.5
4.4000001 6.3000002 14.468699
4.4000001 6.1999998 25.5
4.4000001 6.0999999 25.5
4.4000001 6 25.5
4.4000001 5.9000001 25.5
4.4000001 5.8000002 25.5
4.4000001 5.6999998 25.5
4.4000001 5.5999999 25.5
4.4000001 5.5 25.5
4.4000001 5.4000001 25.5
4.4000001 5.3000002 25.5
4.4000001 5.1999998 25.5
4.4000001 5.0999999 25.5
4.4000001 5 25.5
4.4000001 4.9000001 25.5
4.4000001 4.8000002 14.6064
4.4000001 4.6999998 14.8716
4.4000001 4.5999999 25.5
4.4000001 4.5 25.5
4.4000001 4.4000001 14.3769
4.4000001 4.3000002 25.5
4.4000001 4.1999998 14.9991
4.4000001 4.0999999 25.5
4.4000001 4 15.0603
4.4000001 3.9000001 25.5
4.4000001 3.8 25.5
4.4000001 3.7 25.5
4.4000001 3.5999999 25.5
4.4000001 3.5 14.9226
4.4000001 3.4000001 25.5
4.4000001 3.3 25.5
4.4000001 3.2 25.5
4.4000001 3.0999999 25.5
4.4000001 3 25.5
4.4000001 2.9000001 25.5
4.4000001 2.8 25.5
4.4000001 2.7 25.5
4.4000001 2.5999999 25.5
4.4000001 2.5 25.5
4.4000001 2.4000001 25.5
4.4000001 2.3 25.5
4.4000001 2.2 25.5
4.4000001 2.0999999 25.5
4.4000001 2 25.5
4.4000001 1.9 25.5
4.4000001 1.8 25.5
4.4000001 1.7 25.5
4.4000001 1.6 25.5
4.4000001 1.5 25.5
4.4000001 1.4 25.5
4.4000001 1.3 25.5
4.4000001 1.2 25.5
4.4000001 1.1 25.5
4.4000001 1 25.5
4.4000001 0.89999998 25.5
4.4000001 0.80000001 25.5
4.4000001 0.69999999 25.5
4.4000001 0.60000002 25.5
4.4000001 0.5 25.5
4.4000001 0.40000001 25.5
4.4000001 0.30000001 25.5
4.4000001 0.2 25.5
4.4000001 0.1 25.5
4.5 13.2 3.3631163e-44
4.5 13.1 13.5405
4.5 13 13.8261
4.5 12.9 13.9332
4.5 12.8 14.320799
4.5 12.7 14.4789
4.5 12.6 14.3259
4.5 12.5 25.5
4.5 12.4 25.5
4.5 12.3 25.5
4.5 12.2 25.5
4.5 12.1 25.5
4.5 12 25.5
4.5 11.9 13.4844
4.5 11.8 25.5
4.5 11.7 25.5
4.5 11.6 25.5
4.5 11.5 25.5
4.5 11.4 25.5
4.5 11.3 25.5
4.5 11.2 25.5
4.5 11.1 25.5
4.5 11 25.5
4.5 10.9 25.5
4.5 10.8 25.5
4.5 10.7 25.5
4.5 10.6 25.5
4.5 10.5 25.5
4.5 10.4 25.5
4.5 10.3 25.5
4.5 10.2 14.866499
4.5 10.1 25.5
4.5 10 14.942999
4.5 9.8999996 25.5
4.5 9.8000002 25.5
4.5 9.6999998 25.5
4.5 9.6000004 25.5
4.5 9.5 25.5
4.5 9.3999996 25.5
4.5 9.3000002 14.897099
4.5 9.1999998 25.5
4.5 9.1000004 15.0093
4.5 9 25.5
4.5 8.8999996 25.5
4.5 8.8000002 14.4942
4.5 8.6999998 14.1984
4.5 8.6000004 25.5
4.5 8.5 25.5
4.5 8.3999996 14.560499
4.5 8.3000002 25.5
4.5 8.1999998 25.5
4.5 8.1000004 25.5
4.5 8 14.5554
4.5 7.9000001 25.5
4.5 7.8000002 25.5
4.5 7.6999998 25.5
4.5 7.5999999 25.5
4.5 7.5 25.5
4.5 7.4000001 25.5
4.5 7.3000002 25.5
4.5 7.1999998 25.5
4.5 7.0999999 25.5
4.5 7 25.5
4.5 6.9000001 25.5
4.5 6.8000002 25.5
4.5 6.6999998 25.5
4.5 6.5999999 25.5
4.5 6.5 25.5
4.5 6.4000001 25.5
4.5 6.3000002 25.5
4.5 6.1999998 25.5
4.5 6.0999999 25.5
4.5 6 25.5
4.5 5.9000001 25.5
4.5 5.8000002 25.5
4.5 5.6999998 25.5
4.5 5.5999999 14.953199
4.5 5.5 14.611501
4.5 5.4000001 25.5
4.5 5.3000002 14.0862
4.5 5.1999998 14.7186
4.5 5.0999999 14.218801
4.5 5 25.5
4.5 4.9000001 25.5
4.5 4.8000002 14.876699
4.5 4.6999998 14.897099
4.5 4.5999999 25.5
4.5 4.5 25.5
4.5 4.4000001 14.7033
4.5 4.3000002 25.5
4.5 4.1999998 25.5
4.5 4.0999999 25.5
4.5 4 14.412601
4.5 3.9000001 25.5
4.5 3.8 14.519701
4.5 3.7 25.5
4.5 3.5999999 25.5
4.5 3.5 14.8053
4.5 3.4000001 25.5
4.5 3.3 25.5
4.5 3.2 25.5
4.5 3.0999999 25.5
4.5 3 25.5
4.5 2.9000001 25.5
4.5 2.8 25.5
4.5 2.7 25.5
4.5 2.5999999 25.5
4.5 2.5 25.5
4.5 2.4000001 25.5
4.5 2.3 25.5
4.5 2.2 25.5
4.5 2.0999999 25.5
4.5 2 25.5
4.5 1.9 25.5
4.5 1.8 25.5
4.5 1.7 25.5
4.5 1.6 25.5
4.5 1.5 25.5
4.5 1.4 25.5
4.5 1.3 25.5
4.5 1.2 25.5
4.5 1.1 25.5
4.5 1 25.5
4.5 0.89999998 25.5
4.5 0.80000001 25.5
4.5 0.69999999 25.5
4.5 0.60000002 25.5
4.5 0.5 25.5
4.5 0.40000001 25.5
4.5 0.30000001 25.5
4.5 0.2 25.5
4.5 0.1 25.5
4.5999999 13.2 0
4.5999999 13.1 13.617
4.5999999 13 13.8924
4.5999999 12.9 14.0199
4.5999999 12.8 14.0862
4.5999999 12.7 14.3718
4.5999999 12.6 14.412601
4.5999999 12.5 25.5
4.5999999 12.4 25.5
4.5999999 12.3 25.5
4.5999999 12.2 25.5
4.5999999 12.1 25.5
4.5999999 12 13.5864
4.5999999 11.9 25.5
4.5999999 11.8 25.5
4.5999999 11.7 25.5
4.5999999 11.6 25.5
4.5999999 11.5 25.5
4.5999999 11.4 25.5
4.5999999 11.3 25.5
4.5999999 11.2 25.5
4.5999999 11.1 25.5
4.5999999 11 25.5
4.5999999 10.9 25.5
4.5999999 10.8 25.5
4.5999999 10.7 25.5
4.5999999 10.6 25.5
4.5999999 10.5 25.5
4.5999999 10.4 25.5
4.5999999 10.3 25.5
4.5999999 10.2 25.5
4.5999999 10.1 25.5
4.5999999 10 14.366701
4.5999999 9.8999996 25.5
4.5999999 9.8000002 25.5
4.5999999 9.6999998 14.4942
4.5999999 9.6000004 25.5
4.5999999 9.5 14.5299
4.5999999 9.3999996 25.5
4.5999999 9.3000002 25.5
4.5999999 9.1999998 14.0352
4.5999999 9.1000004 25.5
4.5999999 9 25.5
4.5999999 8.8999996 25.5
4.5999999 8.8000002 14.8002
4.5999999 8.6999998 25.5
4.5999999 8.6000004 25.5
4.5999999 8.5 25.5
4.5999999 8.3999996 14.7543
4.5999999 8.3000002 25.5
4.5999999 8.1999998 13.9485
4.5999999 8.1000004 25.5
4.5999999 8 14.5146
4.5999999 7.9000001 14.065801
4.5999999 7.8000002 14.789999
4.5999999 7.6999998 25.5
4.5999999 7.5999999 14.1831
4.5999999 7.5 14.672701
4.5999999 7.4000001 14.519701
4.5999999 7.3000002 25.5
4.5999999 7.1999998 14.458501
4.5999999 7.0999999 14.550301
4.5999999 7 25.5
4.5999999 6.9000001 25.5
4.5999999 6.8000002 14.290199
4.5999999 6.6999998 14.2086
4.5999999 6.5999999 25.5
4.5999999 6.5 14.0862
4.5999999 6.4000001 14.218801
4.5999999 6.3000002 14.3718
4.5999999 6.1999998 25.5
4.5999999 6.0999999 14.382001
4.5999999 6 14.8563
4.5999999 5.9000001 14.468699
4.5999999 5.8000002 25.5
4.5999999 5.6999998 14.6625
4.5999999 5.5999999 25.5
4.5999999 5.5 14.851199
4.5999999 5.4000001 25.5
4.5999999 5.3000002 25.5
4.5999999 5.1999998 25.5
4.5999999 5.0999999 14.3514
4.5999999 5 25.5
4.5999999 4.9000001 25.5
4.5999999 4.8000002 25.5
4.5999999 4.6999998 14.2851
4.5999999 4.5999999 25.5
4.5999999 4.5 25.5
4.5999999 4.4000001 14.7033
4.5999999 4.3000002 14.5146
4.5999999 4.1999998 25.5
4.5999999 4.0999999 25.5
4.5999999 4 14.912399
4.5999999 3.9000001 25.5
4.5999999 3.8 25.5
4.5999999 3.7 25.5
4.5999999 3.5999999 25.5
4.5999999 3.5 25.5
4.5999999 3.4000001 25.5
4.5999999 3.3 25.5
4.5999999 3.2 25.5
4.5999999 3.0999999 25.5
4.5999999 3 25.5
4.5999999 2.9000001 25.5
4.5999999 2.8 25.5
4.5999999 2.7 25.5
4.5999999 2.5999999 25.5
4.5999999 2.5 25.5
4.5999999 2.4000001 25.5
4.5999999 2.3 25.5
4.5999999 2.2 25.5
4.5999999 2.0999999 25.5
4.5999999 2 25.5
4.5999999 1.9 25.5
4.5999999 1.8 25.5
4.5999999 1.7 25.5
4.5999999 1.6 25.5
4.5999999 1.5 25.5
4.5999999 1.4 25.5
4.5999999 1.3 25.5
4.5999999 1.2 25.5
4.5999999 1.1 25.5
4.5999999 1 25.5
4.5999999 0.89999998 25.5
4.5999999 0.80000001 25.5
4.5999999 0.69999999 25.5
4.5999999 0.60000002 25.5
4.5999999 0.5 25.5
4.5999999 0.40000001 25.5
4.5999999 0.30000001 25.5
4.5999999 0.2 25.5
4.5999999 0.1 25.5
4.6999998 13.2 0
4.6999998 13.1 13.744501
4.6999998 13 13.8261
4.6999998 12.9 14.0811
4.6999998 12.8 14.2698
4.6999998 12.7 14.412601
4.6999998 12.6 14.6166
4.6999998 12.5 14.6523
4.6999998 12.4 25.5
4.6999998 12.3 25.5
4.6999998 12.2 25.5
4.6999998 12.1 25.5
4.6999998 12 25.5
4.6999998 11.9 25.5
4.6999998 11.8 25.5
4.6999998 11.7 25.5
4.6999998 11.6 25.5
4.6999998 11.5 25.5
4.6999998 11.4 25.5
4.6999998 11.3 25.5
4.6999998 11.2 25.5
4.6999998 11.1 25.5
4.6999998 11 25.5
4.6999998 10.9 25.5
4.6999998 10.8 25.5
4.6999998 10.7 25.5
4.6999998 10.6 25.5
4.6999998 10.5 25.5
4.6999998 10.4 25.5
4.6999998 10.3 25.5
4.6999998 10.2 25.5
4.6999998 10.1 25.5
4.6999998 10 25.5
4.6999998 9.8999996 25.5
4.6999998 9.8000002 25.5
4.6999998 9.6999998 25.5
4.6999998 9.6000004 25.5
4.6999998 9.5 25.5
4.6999998 9.3999996 25.5
4.6999998 9.3000002 25.5
4.6999998 9.1999998 25.5
4.6999998 9.1000004 25.5
4.6999998 9 25.5
4.6999998 8.8999996 25.5
4.6999998 8.8000002 25.5
4.6999998 8.6999998 25.5
4.6999998 8.6000004 25.5
4.6999998 8.5 25.5
4.6999998 8.3999996 25.5
4.6999998 8.3000002 25.5
4.6999998 8.1999998 25.5
4.6999998 8.1000004 25.5
4.6999998 8 25.5
4.6999998 7.9000001 25.5
4.6999998 7.8000002 25.5
4.6999998 7.6999998 25.5
4.6999998 7.5999999 25.5
4.6999998 7.5 25.5
4.6999998 7.4000001 25.5
4.6999998 7.3000002 25.5
4.6999998 7.1999998 25.5
4.6999998 7.0999999 14.305499
4.6999998 7 14.3106
4.6999998 6.9000001 14.3157
4.6999998 6.8000002 14.330999
4.6999998 6.6999998 14.3922
4.6999998 6.5999999 14.152499
4.6999998 6.5 25.5
4.6999998 6.4000001 13.9689
4.6999998 6.3000002 25.5
4.6999998 6.1999998 25.5
4.6999998 6.0999999 25.5
4.6999998 6 25.5
4.6999998 5.9000001 25.5
4.6999998 5.8000002 25.5
4.6999998 5.6999998 25.5
4.6999998 5.5999999 25.5
4.6999998 5.5 25.5
4.6999998 5.4000001 25.5
4.6999998 5.3000002 25.5
4.6999998 5.1999998 25.5
4.6999998 5.0999999 25.5
4.6999998 5 25.5
4.6999998 4.9000001 25.5
4.6999998 4.8000002 25.5
4.6999998 4.6999998 25.5
4.6999998 4.5999999 25.5
4.6999998 4.5 25.5
4.6999998 4.4000001 25.5
4.6999998 4.3000002 25.5
4.6999998 4.1999998 25.5
4.6999998 4.0999999 25.5
4.6999998 4 25.5
4.6999998 3.9000001 25.5
4.6999998 3.8 25.5
4.6999998 3.7 25.5
4.6999998 3.5999999 25.5
4.6999998 3.5 25.5
4.6999998 3.4000001 15.2898
4.6999998 3.3 25.5
4.6999998 3.2 25.5
4.6999998 3.0999999 25.5
4.6999998 3 25.5
4.6999998 2.9000001 25.5
4.6999998 2.8 25.5
4.6999998 2.7 25.5
4.6999998 2.5999999 25.5
4.6999998 2.5 25.5
4.6999998 2.4000001 25.5
4.6999998 2.3 25.5
4.6999998 2.2 25.5
4.6999998 2.0999999 25.5
4.6999998 2 25.5
4.6999998 1.9 25.5
4.6999998 1.8 25.5
4.6999998 1.7 25.5
4.6999998 1.6 25.5
4.6999998 1.5 25.5
4.6999998 1.4 25.5
4.6999998 1.3 25.5
4.6999998 1.2 25.5
4.6999998 1.1 25.5
4.6999998 1 25.5
4.6999998 0.89999998 25.5
4.6999998 0.80000001 25.5
4.6999998 0.69999999 25.5
4.6999998 0.60000002 25.5
4.6999998 0.5 25.5
4.6999998 0.40000001 25.5
4.6999998 0.30000001 25.5
4.6999998 0.2 25.5
4.6999998 0.1 25.5
4.8000002 13.2 -3.5228776e-20
4.8000002 13.1 13.6425
4.8000002 13 13.7955
4.8000002 12.9 14.3004
4.8000002 12.8 14.244299
4.8000002 12.7 14.5299
4.8000002 12.6 14.7237
4.8000002 12.5 14.9583
4.8000002 12.4 15.294901
4.8000002 12.3 25.5
4.8000002 12.2 25.5
4.8000002 12.1 25.5
4.8000002 12 25.5
4.8000002 11.9 25.5
4.8000002 11.8 25.5
4.8000002 11.7 25.5
4.8000002 11.6 25.5
4.8000002 11.5 25.5
4.8000002 11.4 25.5
4.8000002 11.3 25.5
4.8000002 11.2 25.5
4.8000002 11.1 25.5
4.8000002 11 25.5
4.8000002 10.9 25.5
4.8000002 10.8 25.5
4.8000002 10.7 25.5
4.8000002 10.6 25.5
4.8000002 10.5 25.5
4.8000002 10.4 25.5
4.8000002 10.3 25.5
4.8000002 10.2 25.5
4.8000002 10.1 25.5
4.8000002 10 25.5
4.8000002 9.8999996 25.5
4.8000002 9.8000002 25.5
4.8000002 9.6999998 25.5
4.8000002 9.6000004 25.5
4.8000002 9.5 25.5
4.8000002 9.3999996 25.5
4.8000002 9.3000002 25.5
4.8000002 9.1999998 25.5
4.8000002 9.1000004 25.5
4.8000002 9 25.5
4.8000002 8.8999996 25.5
4.8000002 8.8000002 25.5
4.8000002 8.6999998 25.5
4.8000002 8.6000004 25.5
4.8000002 8.5 25.5
4.8000002 8.3999996 25.5
4.8000002 8.3000002 25.5
4.8000002 8.1999998 16.4475
4.8000002 8.1000004 25.5
4.8000002 8 16.350599
4.8000002 7.9000001 16.4016
4.8000002 7.8000002 15.855901
4.8000002 7.6999998 15.861
4.8000002 7.5999999 16.416901
4.8000002 7.5 16.014
4.8000002 7.4000001 15.713099
4.8000002 7.3000002 16.029301
4.8000002 7.1999998 25.5
4.8000002 7.0999999 25.5
4.8000002 7 16.5189
4.8000002 6.9000001 15.993601
4.8000002 6.8000002 16.121099
4.8000002 6.6999998 16.269001
4.8000002 6.5999999 16.391399
4.8000002 6.5 16.467899
4.8000002 6.4000001 16.9167
4.8000002 6.3000002 17.0238
4.8000002 6.1999998 16.9881
4.8000002 6.0999999 17.166599
4.8000002 6 16.921801
4.8000002 5.9000001 16.575001
4.8000002 5.8000002 16.743299
4.8000002 5.6999998 16.692301
4.8000002 5.5999999 17.2584
4.8000002 5.5 25.5
4.8000002 5.4000001 25.5
4.8000002 5.3000002 25.5
4.8000002 5.1999998 25.5
4.8000002 5.0999999 25.5
4.8000002 5 25.5
4.8000002 4.9000001 25.5
4.8000002 4.8000002 25.5
4.8000002 4.6999998 25.5
4.8000002 4.5999999 25.5
4.8000002 4.5 25.5
4.8000002 4.4000001 25.5
4.8000002 4.3000002 25.5
4.8000002 4.1999998 25.5
4.8000002 4.0999999 25.5
4.8000002 4 25.5
4.8000002 3.9000001 25.5
4.8000002 3.8 25.5
4.8000002 3.7 25.5
4.8000002 3.5999999 25.5
4.8000002 3.5 25.5
4.8000002 3.4000001 25.5
4.8000002 3.3 25.5
4.8000002 3.2 25.5
4.8000002 3.0999999 25.5
4.8000002 3 25.5
4.8000002 2.9000001 25.5
4.8000002 2.8 25.5
4.8000002 2.7 25.5
4.8000002 2.5999999 25.5
4.8000002 2.5 25.5
4.8000002 2.4000001 25.5
4.8000002 2.3 25.5
4.8000002 2.2 25.5
4.8000002 2.0999999 25.5
4.8000002 2 25.5
4.8000002 1.9 25.5
4.8000002 1.8 25.5
4.8000002 1.7 25.5
4.8000002 1.6 25.5
4.8000002 1.5 25.5
4.8000002 1.4 25.5
4.8000002 1.3 25.5
4.8000002 1.2 25.5
4.8000002 1.1 25.5
4.8000002 1 25.5
4.8000002 0.89999998 25.5
4.8000002 0.80000001 25.5
4.8000002 0.69999999 25.5
4.8000002 0.60000002 25.5
4.8000002 0.5 25.5
4.8000002 0.40000001 25.5
4.8000002 0.30000001 25.5
4.8000002 0.2 25.5
4.8000002 0.1 25.5
4.9000001 13.2 3.3631163e-44
4.9000001 13.1 13.744501
4.9000001 13 13.9638
4.9000001 12.9 14.1831
4.9000001 12.8 14.218801
4.9000001 12.7 14.545199
4.9000001 12.6 14.698199
4.9000001 12.5 15.029699
4.9000001 12.4 15.167399
4.9000001 12.3 15.4071
4.9000001 12.2 15.167399
4.9000001 12.1 25.5
4.9000001 12 25.5
4.9000001 11.9 25.5
4.9000001 11.8 25.5
4.9000001 11.7 25.5
4.9000001 11.6 25.5
4.9000001 11.5 25.5
4.9000001 11.4 25.5
4.9000001 11.3 25.5
4.9000001 11.2 25.5
4.9000001 11.1 15.5703
4.9000001 11 15.5448
4.9000001 10.9 15.3561
4.9000001 10.8 15.5091
4.9000001 10.7 15.335699
4.9000001 10.6 15.4428
4.9000001 10.5 15.2541
4.9000001 10.4 15.4173
4.9000001 10.3 15.320399
4.9000001 10.2 15.4224
4.9000001 10.1 15.310201
4.9000001 10 15.3561
4.9000001 9.8999996 15.2643
4.9000001 9.8000002 15.5601
4.9000001 9.6999998 15.8151
4.9000001 9.6000004 25.5
4.9000001 9.5 25.5
4.9000001 9.3999996 25.5
4.9000001 9.3000002 25.5
4.9000001 9.1999998 25.5
4.9000001 9.1000004 15.539701
4.9000001 9 15.626401
4.9000001 8.8999996 16.1721
4.9000001 8.8000002 16.2078
4.9000001 8.6999998 15.9375
4.9000001 8.6000004 15.9528
4.9000001 8.5 15.611099
4.9000001 8.3999996 16.258801
4.9000001 8.3000002 16.217999
4.9000001 8.1999998 16.4475
4.9000001 8.1000004 16.2894
4.9000001 8 16.432201
4.9000001 7.9000001 16.1772
4.9000001 7.8000002 16.116001
4.9000001 7.6999998 16.2945
4.9000001 7.5999999 16.2078
4.9000001 7.5 16.105801
4.9000001 7.4000001 16.0089
4.9000001 7.3000002 15.927299
4.9000001 7.1999998 25.5
4.9000001 7.0999999 15.9987
4.9000001 7 16.580099
4.9000001 6.9000001 16.625999
4.9000001 6.8000002 16.7229
4.9000001 6.6999998 16.738201
4.9000001 6.5999999 16.7178
4.9000001 6.5 16.814701
4.9000001 6.4000001 16.804501
4.9000001 6.3000002 16.819799
4.9000001 6.1999998 16.845301
4.9000001 6.0999999 16.83
4.9000001 6 16.855499
4.9000001 5.9000001 16.8708
4.9000001 5.8000002 16.840199
4.9000001 5.6999998 16.8708
4.9000001 5.5999999 16.962601
4.9000001 5.5 16.9881
4.9000001 5.4000001 16.845301
4.9000001 5.3000002 17.130901
4.9000001 5.1999998 17.34
4.9000001 5.0999999 25.5
4.9000001 5 25.5
4.9000001 4.9000001 25.5
4.9000001 4.8000002 25.5
4.9000001 4.6999998 25.5
4.9000001 4.5999999 25.5
4.9000001 4.5 17.2533
4.9000001 4.4000001 17.192101
4.9000001 4.3000002 17.34
4.9000001 4.1999998 17.350201
4.9000001 4.0999999 16.544399
4.9000001 4 16.355701
4.9000001 3.9000001 16.3965
4.9000001 3.8 16.493401
4.9000001 3.7 16.7484
4.9000001 3.5999999 16.7841
4.9000001 3.5 16.692301
4.9000001 3.4000001 25.5
4.9000001 3.3 25.5
4.9000001 3.2 25.5
4.9000001 3.0999999 25.5
4.9000001 3 25.5
4.9000001 2.9000001 25.5
4.9000001 2.8 25.5
4.9000001 2.7 25.5
4.9000001 2.5999999 25.5
4.9000001 2.5 25.5
4.9000001 2.4000001 25.5
4.9000001 2.3 25.5
4.9000001 2.2 25.5
4.9000001 2.0999999 25.5
4.9000001 2 25.5
4.9000001 1.9 25.5
4.9000001 1.8 25.5
4.9000001 1.7 25.5
4.9000001 1.6 25.5
4.9000001 1.5 25.5
4.9000001 1.4 25.5
4.9000001 1.3 25.5
4.9000001 1.2 25.5
4.9000001 1.1 25.5
4.9000001 1 25.5
4.9000001 0.89999998 25.5
4.9000001 0.80000001 25.5
4.9000001 0.69999999 25.5
4.9000001 0.60000002 25.5
4.9000001 0.5 25.5
4.9000001 0.40000001 25.5
4.9000001 0.30000001 25.5
4.9000001 0.2 25.5
4.9000001 0.1 25.5
5 13.2 -3.5228785e-20
5 13.1 13.861799
5 13 14.004601
5 12.9 14.218801
5 12.8 14.290199
5 12.7 14.519701
5 12.6 14.7237
5 12.5 14.988901
5 12.4 15.147
5 12.3 15.606
5 12.2 15.779401
5 12.1 15.866099
5 12 25.5
5 11.9 25.5
5 11.8 25.5
5 11.7 25.5
5 11.6 25.5
5 11.5 25.5
5 11.4 25.5
5 11.3 25.5
5 11.2 15.5091
5 11.1 15.5856
5 11 15.677401
5 10.9 15.718201
5 10.8 15.753901
5 10.7 15.794701
5 10.6 15.6978
5 10.5 15.779401
5 10.4 15.6366
5 10.3 15.6978
5 10.2 15.861
5 10.1 16.029301
5 10 15.957899
5 9.8999996 16.0089
5 9.8000002 16.1007
5 9.6999998 15.932401
5 9.6000004 25.5
5 9.5 25.5
5 9.3999996 25.5
5 9.3000002 25.5
5 9.1999998 25.5
5 9.1000004 25.5
5 9 15.488699
5 8.8999996 16.1262
5 8.8000002 16.039501
5 8.6999998 16.141499
5 8.6000004 16.116001
5 8.5 16.2486
5 8.3999996 16.569901
5 8.3000002 16.4424
5 8.1999998 16.5903
5 8.1000004 16.524
5 8 16.687199
5 7.9000001 16.677
5 7.8000002 16.625999
5 7.6999998 16.5138
5 7.5999999 16.7535
5 7.5 16.677
5 7.4000001 16.2486
5 7.3000002 16.197599
5 7.1999998 25.5
5 7.0999999 25.5
5 7 16.8708
5 6.9000001 16.804501
5 6.8000002 16.819799
5 6.6999998 17.0289
5 6.5999999 16.9524
5 6.5 17.161501
5 6.4000001 17.130901
5 6.3000002 17.085001
5 6.1999998 17.008501
5 6.0999999 17.0187
5 6 16.9881
5 5.9000001 17.350201
5 5.8000002 17.278799
5 5.6999998 17.248199
5 5.5999999 17.4522
5 5.5 17.232899
5 5.4000001 17.477699
5 5.3000002 17.671499
5 5.1999998 25.5
5 5.0999999 25.5
5 5 25.5
5 4.9000001 25.5
5 4.8000002 25.5
5 4.6999998 25.5
5 4.5999999 25.5
5 4.5 25.5
5 4.4000001 25.5
5 4.3000002 25.5
5 4.1999998 17.8806
5 4.0999999 17.008501
5 4 16.9167
5 3.9000001 16.6464
5 3.8 16.615801
5 3.7 16.692301
5 3.5999999 17.1819
5 3.5 16.5903
5 3.4000001 25.5
5 3.3 25.5
5 3.2 25.5
5 3.0999999 25.5
5 3 25.5
5 2.9000001 25.5
5 2.8 25.5
5 2.7 25.5
5 2.5999999 25.5
5 2.5 25.5
5 2.4000001 25.5
5 2.3 25.5
5 2.2 25.5
5 2.0999999 25.5
5 2 25.5
5 1.9 25.5
5 1.8 25.5
5 1.7 25.5
5 1.6 25.5
5 1.5 25.5
5 1.4 25.5
5 1.3 25.5
5 1.2 25.5
5 1.1 25.5
5 1 25.5
5 0.89999998 25.5
5 0.80000001 25.5
5 0.69999999 25.5
5 0.60000002 25.5
5 0.5 25.5
5 0.40000001 25.5
5 0.30000001 25.5
5 0.2 25.5
5 0.1 25.5
5.0999999 13.2 3.3631163e-44
5.0999999 13.1 13.8057
5.0999999 13 13.8159
5.0999999 12.9 14.1474
5.0999999 12.8 14.473801
5.0999999 12.7 14.6778
5.0999999 12.6 14.7186
5.0999999 12.5 14.973599
5.0999999 12.4 15.106199
5.0999999 12.3 15.4683
5.0999999 12.2 15.6621
5.0999999 12.1 15.9018
5.0999999 12 16.0548
5.0999999 11.9 25.5
5.0999999 11.8 25.5
5.0999999 11.7 25.5
5.0999999 11.6 25.5
5.0999999 11.5 25.5
5.0999999 11.4 25.5
5.0999999 11.3 25.5
5.0999999 11.2 25.5
5.0999999 11.1 16.258801
5.0999999 11 16.6413
5.0999999 10.9 16.8249
5.0999999 10.8 16.926899
5.0999999 10.7 16.896299
5.0999999 10.6 17.0748
5.0999999 10.5 17.008501
5.0999999 10.4 17.003399
5.0999999 10.3 16.8657
5.0999999 10.2 16.850399
5.0999999 10.1 17.085001
5.0999999 10 17.197201
5.0999999 9.8999996 17.125799
5.0999999 9.8000002 16.585201
5.0999999 9.6999998 16.269001
5.0999999 9.6000004 25.5
5.0999999 9.5 25.5
5.0999999 9.3999996 25.5
5.0999999 9.3000002 25.5
5.0999999 9.1999998 19.691099
5.0999999 9.1000004 25.5
5.0999999 9 25.5
5.0999999 8.8999996 16.0548
5.0999999 8.8000002 16.6464
5.0999999 8.6999998 16.651501
5.0999999 8.6000004 16.416901
5.0999999 8.5 16.7484
5.0999999 8.3999996 16.6311
5.0999999 8.3000002 16.845301
5.0999999 8.1999998 17.0748
5.0999999 8.1000004 16.932001
5.0999999 8 17.0187
5.0999999 7.9000001 17.013599
5.0999999 7.8000002 18.1968
5.0999999 7.6999998 19.125
5.0999999 7.5999999 19.5534
5.0999999 7.5 19.691099
5.0999999 7.4000001 17.2278
5.0999999 7.3000002 16.2129
5.0999999 7.1999998 21.1497
5.0999999 7.0999999 25.5
5.0999999 7 25.5
5.0999999 6.9000001 17.6562
5.0999999 6.8000002 18.558901
5.0999999 6.6999998 18.615
5.0999999 6.5999999 18.972
5.0999999 6.5 19.109699
5.0999999 6.4000001 19.3596
5.0999999 6.3000002 19.2423
5.0999999 6.1999998 25.5
5.0999999 6.0999999 25.5
5.0999999 6 25.5
5.0999999 5.9000001 25.5
5.0999999 5.8000002 19.5993
5.0999999 5.6999998 19.114799
5.0999999 5.5999999 25.5
5.0999999 5.5 25.5
5.0999999 5.4000001 18.992399
5.0999999 5.3000002 18.8904
5.0999999 5.1999998 20.119501
5.0999999 5.0999999 25.5
5.0999999 5 25.5
5.0999999 4.9000001 25.5
5.0999999 4.8000002 25.5
5.0999999 4.6999998 25.5
5.0999999 4.5999999 25.5
5.0999999 4.5 25.5
5.0999999 4.4000001 25.5
5.0999999 4.3000002 25.5
5.0999999 4.1999998 16.7841
5.0999999 4.0999999 16.6464
5.0999999 4 16.457699
5.0999999 3.9000001 16.697399
5.0999999 3.8 16.886099
5.0999999 3.7 16.983
5.0999999 3.5999999 17.1513
5.0999999 3.5 25.5
5.0999999 3.4000001 25.5
5.0999999 3.3 25.5
5.0999999 3.2 25.5
5.0999999 3.0999999 25.5
5.0999999 3 25.5
5.0999999 2.9000001 25.5
5.0999999 2.8 25.5
5.0999999 2.7 25.5
5.0999999 2.5999999 25.5
5.0999999 2.5 25.5
5.0999999 2.4000001 25.5
5.0999999 2.3 25.5
5.0999999 2.2 25.5
5.0999999 2.0999999 25.5
5.0999999 2 25.5
5.0999999 1.9 25.5
5.0999999 1.8 25.5
5.0999999 1.7 25.5
5.0999999 1.6 25.5
5.0999999 1.5 25.5
5.0999999 1.4 25.5
5.0999999 1.3 25.5
5.0999999 1.2 25.5
5.0999999 1.1 25.5
5.0999999 1 25.5
5.0999999 0.89999998 25.5
5.0999999 0.80000001 25.5
5.0999999 0.69999999 25.5
5.0999999 0.60000002 25.5
5.0999999 0.5 25.5
5.0999999 0.40000001 25.5
5.0999999 0.30000001 25.5
5.0999999 0.2 25.5
5.0999999 0.1 25.5
5.1999998 13.2 -6073325
5.1999998 13.1 13.9077
5.1999998 13 14.004601
5.1999998 12.9 14.203501
5.1999998 12.8 14.244299
5.1999998 12.7 14.6676
5.1999998 12.6 14.759399
5.1999998 12.5 15.2643
5.1999998 12.4 15.2898
5.1999998 12.3 15.6162
5.1999998 12.2 15.7743
5.1999998 12.1 16.064999
5.1999998 12 16.416901
5.1999998 11.9 25.5
5.1999998 11.8 25.5
5.1999998 11.7 25.5
5.1999998 11.6 25.5
5.1999998 11.5 25.5
5.1999998 11.4 25.5
5.1999998 11.3 25.5
5.1999998 11.2 25.5
5.1999998 11.1 25.5
5.1999998 11 16.886099
5.1999998 10.9 17.3043
5.1999998 10.8 17.2176
5.1999998 10.7 17.232899
5.1999998 10.6 17.2125
5.1999998 10.5 17.4216
5.1999998 10.4 17.3757
5.1999998 10.3 17.493
5.1999998 10.2 17.0697
5.1999998 10.1 17.273701
5.1999998 10 17.549099
5.1999998 9.8999996 17.385899
5.1999998 9.8000002 17.120701
5.1999998 9.6999998 16.3353
5.1999998 9.6000004 25.5
5.1999998 9.5 25.5
5.1999998 9.3999996 25.5
5.1999998 9.3000002 25.5
5.1999998 9.1999998 19.604401
5.1999998 9.1000004 19.788
5.1999998 9 25.5
5.1999998 8.8999996 16.9422
5.1999998 8.8000002 16.6362
5.1999998 8.6999998 16.809599
5.1999998 8.6000004 16.83
5.1999998 8.5 16.6464
5.1999998 8.3999996 16.901402
5.1999998 8.3000002 17.2227
5.1999998 8.1999998 17.034
5.1999998 8.1000004 16.977901
5.1999998 8 17.008501
5.1999998 7.9000001 17.090099
5.1999998 7.8000002 19.527901
5.1999998 7.6999998 21.833099
5.1999998 7.5999999 21.664799
5.1999998 7.5 21.241499
5.1999998 7.4000001 17.824499
5.1999998 7.3000002 16.881001
5.1999998 7.1999998 20.9202
5.1999998 7.0999999 25.5
5.1999998 7 25.5
5.1999998 6.9000001 25.5
5.1999998 6.8000002 25.5
5.1999998 6.6999998 25.5
5.1999998 6.5999999 25.5
5.1999998 6.5 25.5
5.1999998 6.4000001 25.5
5.1999998 6.3000002 25.5
5.1999998 6.1999998 25.5
5.1999998 6.0999999 25.5
5.1999998 6 25.5
5.1999998 5.9000001 25.5
5.1999998 5.8000002 25.5
5.1999998 5.6999998 22.8888
5.1999998 5.5999999 22.802099
5.1999998 5.5 25.5
5.1999998 5.4000001 25.5
5.1999998 5.3000002 20.313299
5.1999998 5.1999998 22.5522
5.1999998 5.0999999 25.5
5.1999998 5 25.5
5.1999998 4.9000001 25.5
5.1999998 4.8000002 25.5
5.1999998 4.6999998 25.5
5.1999998 4.5999999 25.5
5.1999998 4.5 25.5
5.1999998 4.4000001 25.5
5.1999998 4.3000002 25.5
5.1999998 4.1999998 25.5
5.1999998 4.0999999 25.5
5.1999998 4 25.5
5.1999998 3.9000001 25.5
5.1999998 3.8 25.5
5.1999998 3.7 25.5
5.1999998 3.5999999 25.5
5.1999998 3.5 25.5
5.1999998 3.4000001 25.5
5.1999998 3.3 25.5
5.1999998 3.2 25.5
5.1999998 3.0999999 25.5
5.1999998 3 25.5
5.1999998 2.9000001 25.5
5.1999998 2.8 25.5
5.1999998 2.7 25.5
5.1999998 2.5999999 25.5
5.1999998 2.5 25.5
5.1999998 2.4000001 25.5
5.1999998 2.3 25.5
5.1999998 2.2 25.5
5.1999998 2.0999999 25.5
5.1999998 2 25.5
5.1999998 1.9 25.5
5.1999998 1.8 25.5
5.1999998 1.7 25.5
5.1999998 1.6 25.5
5.1999998 1.5 25.5
5.1999998 1.4 25.5
5.1999998 1.3 25.5
5.1999998 1.2 25.5
5.1999998 1.1 25.5
5.1999998 1 25.5
5.1999998 0.89999998 25.5
5.1999998 0.80000001 25.5
5.1999998 0.69999999 25.5
5.1999998 0.60000002 25.5
5.1999998 0.5 25.5
5.1999998 0.40000001 25.5
5.1999998 0.30000001 25.5
5.1999998 0.2 25.5
5.1999998 0.1 25.5
5.3000002 13.2 7.8472714e-44
5.3000002 13.1 14.1627
5.3000002 13 14.1933
5.3000002 12.9 14.3514
5.3000002 12.8 14.5707
5.3000002 12.7 14.6676
5.3000002 12.6 14.7849
5.3000002 12.5 15.1266
5.3000002 12.4 15.335699
5.3000002 12.3 15.473399
5.3000002 12.2 15.8508
5.3000002 12.1 15.81
5.3000002 12 16.2894
5.3000002 11.9 16.651501
5.3000002 11.8 25.5
5.3000002 11.7 25.5
5.3000002 11.6 25.5
5.3000002 11.5 25.5
5.3000002 11.4 25.5
5.3000002 11.3 25.5
5.3000002 11.2 25.5
5.3000002 11.1 25.5
5.3000002 11 25.5
5.3000002 10.9 17.441999
5.3000002 10.8 17.559299
5.3000002 10.7 17.554201
5.3000002 10.6 17.620501
5.3000002 10.5 17.6562
5.3000002 10.4 18.094799
5.3000002 10.3 17.941799
5.3000002 10.2 17.7735
5.3000002 10.1 17.5797
5.3000002 10 17.4879
5.3000002 9.8999996 17.8908
5.3000002 9.8000002 17.952
5.3000002 9.6999998 16.881001
5.3000002 9.6000004 16.5648
5.3000002 9.5 16.141499
5.3000002 9.3999996 25.5
5.3000002 9.3000002 25.5
5.3000002 9.1999998 19.573801
5.3000002 9.1000004 19.568699
5.3000002 9 19.191299
5.3000002 8.8999996 25.5
5.3000002 8.8000002 16.819799
5.3000002 8.6999998 17.2635
5.3000002 8.6000004 17.324699
5.3000002 8.5 16.8657
5.3000002 8.3999996 17.2278
5.3000002 8.3000002 17.5695
5.3000002 8.1999998 17.2278
5.3000002 8.1000004 17.085001
5.3000002 8 17.207401
5.3000002 7.9000001 17.6562
5.3000002 7.8000002 19.9869
5.3000002 7.6999998 21.8025
5.3000002 7.5999999 21.8076
5.3000002 7.5 21.4506
5.3000002 7.4000001 18.4212
5.3000002 7.3000002 17.4063
5.3000002 7.1999998 21.1395
5.3000002 7.0999999 25.5
5.3000002 7 25.5
5.3000002 6.9000001 25.5
5.3000002 6.8000002 19.7472
5.3000002 6.6999998 20.0481
5.3000002 6.5999999 19.9002
5.3000002 6.5 19.8339
5.3000002 6.4000001 19.762501
5.3000002 6.3000002 20.042999
5.3000002 6.1999998 20.027699
5.3000002 6.0999999 20.3643
5.3000002 6 20.894701
5.3000002 5.9000001 21.935101
5.3000002 5.8000002 22.414501
5.3000002 5.6999998 22.6185
5.3000002 5.5999999 22.7001
5.3000002 5.5 25.5
5.3000002 5.4000001 25.5
5.3000002 5.3000002 25.5
5.3000002 5.1999998 22.0014
5.3000002 5.0999999 25.5
5.3000002 5 25.5
5.3000002 4.9000001 25.5
5.3000002 4.8000002 25.5
5.3000002 4.6999998 25.5
5.3000002 4.5999999 25.5
5.3000002 4.5 25.5
5.3000002 4.4000001 25.5
5.3000002 4.3000002 25.5
5.3000002 4.1999998 25.5
5.3000002 4.0999999 25.5
5.3000002 4 25.5
5.3000002 3.9000001 25.5
5.3000002 3.8 25.5
5.3000002 3.7 25.5
5.3000002 3.5999999 25.5
5.3000002 3.5 25.5
5.3000002 3.4000001 25.5
5.3000002 3.3 25.5
5.3000002 3.2 25.5
5.3000002 3.0999999 25.5
5.3000002 3 25.5
5.3000002 2.9000001 25.5
5.3000002 2.8 25.5
5.3000002 2.7 25.5
5.3000002 2.5999999 25.5
5.3000002 2.5 25.5
5.3000002 2.4000001 25.5
5.3000002 2.3 25.5
5.3000002 2.2 25.5
5.3000002 2.0999999 25.5
5.3000002 2 25.5
5.3000002 1.9 25.5
5.3000002 1.8 25.5
5.3000002 1.7 25.5
5.3000002 1.6 25.5
5.3000002 1.5 25.5
5.3000002 1.4 25.5
5.3000002 1.3 25.5
5.3000002 1.2 25.5
5.3000002 1.1 25.5
5.3000002 1 25.5
5.3000002 0.89999998 25.5
5.3000002 0.80000001 25.5
5.3000002 0.69999999 25.5
5.3000002 0.60000002 25.5
5.3000002 0.5 25.5
5.3000002 0.40000001 25.5
5.3000002 0.30000001 25.5
5.3000002 0.2 25.5
5.3000002 0.1 25.5
5.4000001 13.2 0
5.4000001 13.1 14.1066
5.4000001 13 14.2953
5.4000001 12.9 14.2341
5.4000001 12.8 14.5656
5.4000001 12.7 14.749201
5.4000001 12.6 14.7951
5.4000001 12.5 15.2082
5.4000001 12.4 15.4683
5.4000001 12.3 15.4377
5.4000001 12.2 15.6927
5.4000001 12.1 16.156799
5.4000001 12 16.269001
5.4000001 11.9 16.7535
5.4000001 11.8 17.013599
5.4000001 11.7 17.243099
5.4000001 11.6 25.5
5.4000001 11.5 25.5
5.4000001 11.4 25.5
5.4000001 11.3 25.5
5.4000001 11.2 25.5
5.4000001 11.1 25.5
5.4000001 11 25.5
5.4000001 10.9 25.5
5.4000001 10.8 17.625599
5.4000001 10.7 17.8041
5.4000001 10.6 17.9877
5.4000001 10.5 17.977499
5.4000001 10.4 17.9928
5.4000001 10.3 18.0387
5.4000001 10.2 18.2733
5.4000001 10.1 18.0795
5.4000001 10 17.824499
5.4000001 9.8999996 17.9928
5.4000001 9.8000002 18.105
5.4000001 9.6999998 17.6154
5.4000001 9.6000004 16.763699
5.4000001 9.5 16.0548
5.4000001 9.3999996 25.5
5.4000001 9.3000002 19.527901
5.4000001 9.1999998 19.6401
5.4000001 9.1000004 19.691099
5.4000001 9 19.482
5.4000001 8.8999996 25.5
5.4000001 8.8000002 17.278799
5.4000001 8.6999998 18.003
5.4000001 8.6000004 17.9673
5.4000001 8.5 17.7582
5.4000001 8.3999996 17.6154
5.4000001 8.3000002 17.972401
5.4000001 8.1999998 18.013201
5.4000001 8.1000004 17.936701
5.4000001 8 17.9265
5.4000001 7.9000001 18.563999
5.4000001 7.8000002 20.7162
5.4000001 7.6999998 21.782101
5.4000001 7.5999999 21.8025
5.4000001 7.5 21.486301
5.4000001 7.4000001 20.471401
5.4000001 7.3000002 20.349001
5.4000001 7.1999998 21.358799
5.4000001 7.0999999 25.5
5.4000001 7 25.5
5.4000001 6.9000001 19.4412
5.4000001 6.8000002 19.737
5.4000001 6.6999998 19.7421
5.4000001 6.5999999 19.849201
5.4000001 6.5 19.7523
5.4000001 6.4000001 19.9002
5.4000001 6.3000002 19.813499
5.4000001 6.1999998 19.9461
5.4000001 6.0999999 20.0175
5.4000001 6 20.502001
5.4000001 5.9000001 20.5632
5.4000001 5.8000002 21.624001
5.4000001 5.6999998 22.5879
5.4000001 5.5999999 22.695
5.4000001 5.5 23.2866
5.4000001 5.4000001 25.5
5.4000001 5.3000002 25.5
5.4000001 5.1999998 25.5
5.4000001 5.0999999 25.5
5.4000001 5 25.5
5.4000001 4.9000001 25.5
5.4000001 4.8000002 25.5
5.4000001 4.6999998 25.5
5.4000001 4.5999999 25.5
5.4000001 4.5 25.5
5.4000001 4.4000001 25.5
5.4000001 4.3000002 25.5
5.4000001 4.1999998 25.5
5.4000001 4.0999999 25.5
5.4000001 4 25.5
5.4000001 3.9000001 25.5
5.4000001 3.8 25.5
5.4000001 3.7 25.5
5.4000001 3.5999999 25.5
5.4000001 3.5 25.5
5.4000001 3.4000001 25.5
5.4000001 3.3 25.5
5.4000001 3.2 25.5
5.4000001 3.0999999 25.5
5.4000001 3 25.5
5.4000001 2.9000001 25.5
5.4000001 2.8 25.5
5.4000001 2.7 25.5
5.4000001 2.5999999 25.5
5.4000001 2.5 25.5
5.4000001 2.4000001 25.5
5.4000001 2.3 25.5
5.4000001 2.2 25.5
5.4000001 2.0999999 25.5
5.4000001 2 25.5
5.4000001 1.9 25.5
5.4000001 1.8 25.5
5.4000001 1.7 25.5
5.4000001 1.6 25.5
5.4000001 1.5 25.5
5.4000001 1.4 25.5
5.4000001 1.3 25.5
5.4000001 1.2 25.5
5.4000001 1.1 25.5
5.4000001 1 25.5
5.4000001 0.89999998 25.5
5.4000001 0.80000001 25.5
5.4000001 0.69999999 25.5
5.4000001 0.60000002 25.5
5.4000001 0.5 25.5
5.4000001 0.40000001 25.5
5.4000001 0.30000001 25.5
5.4000001 0.2 25.5
5.4000001 0.1 25.5
5.5 13.2 0
5.5 13.1 14.025
5.5 13 14.3157
5.5 12.9 14.3718
5.5 12.8 14.636999
5.5 12.7 14.9175
5.5 12.6 14.8155
5.5 12.5 15.1623
5.5 12.4 15.412199
5.5 12.3 15.759
5.5 12.2 15.866099
5.5 12.1 16.0089
5.5 12 16.309801
5.5 11.9 16.687199
5.5 11.8 16.7535
5.5 11.7 17.044201
5.5 11.6 17.8041
5.5 11.5 17.814301
5.5 11.4 25.5
5.5 11.3 25.5
5.5 11.2 25.5
5.5 11.1 25.5
5.5 11 25.5
5.5 10.9 25.5
5.5 10.8 25.5
5.5 10.7 17.8908
5.5 10.6 18.1968
5.5 10.5 18.252901
5.5 10.4 18.156
5.5 10.3 18.3498
5.5 10.2 18.217199
5.5 10.1 18.370199
5.5 10 18.288601
5.5 9.8999996 18.288601
5.5 9.8000002 18.4314
5.5 9.6999998 18.2274
5.5 9.6000004 17.7582
5.5 9.5 18.2019
5.5 9.3999996 18.987301
5.5 9.3000002 19.466702
5.5 9.1999998 19.573801
5.5 9.1000004 19.5177
5.5 9 19.578899
5.5 8.8999996 25.5
5.5 8.8000002 25.5
5.5 8.6999998 18.2376
5.5 8.6000004 18.706799
5.5 8.5 18.3396
5.5 8.3999996 18.324299
5.5 8.3000002 18.676199
5.5 8.1999998 18.5385
5.5 8.1000004 18.5844
5.5 8 18.4977
5.5 7.9000001 18.7374
5.5 7.8000002 20.496899
5.5 7.6999998 21.6852
5.5 7.5999999 21.6036
5.5 7.5 21.368999
5.5 7.4000001 21.353701
5.5 7.3000002 21.328199
5.5 7.1999998 21.358799
5.5 7.0999999 25.5
5.5 7 25.5
5.5 6.9000001 19.604401
5.5 6.8000002 19.696201
5.5 6.6999998 19.767599
5.5 6.5999999 19.8237
5.5 6.5 19.645199
5.5 6.4000001 19.7421
5.5 6.3000002 19.757401
5.5 6.1999998 19.915501
5.5 6.0999999 20.542799
5.5 6 21.1497
5.5 5.9000001 20.8386
5.5 5.8000002 22.2258
5.5 5.6999998 22.725599
5.5 5.5999999 22.6593
5.5 5.5 22.960201
5.5 5.4000001 25.5
5.5 5.3000002 25.5
5.5 5.1999998 25.5
5.5 5.0999999 25.5
5.5 5 25.5
5.5 4.9000001 25.5
5.5 4.8000002 25.5
5.5 4.6999998 25.5
5.5 4.5999999 25.5
5.5 4.5 25.5
5.5 4.4000001 25.5
5.5 4.3000002 25.5
5.5 4.1999998 25.5
5.5 4.0999999 25.5
5.5 4 25.5
5.5 3.9000001 25.5
5.5 3.8 25.5
5.5 3.7 25.5
5.5 3.5999999 25.5
5.5 3.5 25.5
5.5 3.4000001 25.5
5.5 3.3 25.5
5.5 3.2 25.5
5.5 3.0999999 25.5
5.5 3 25.5
5.5 2.9000001 25.5
5.5 2.8 25.5
5.5 2.7 25.5
5.5 2.5999999 25.5
5.5 2.5 25.5
5.5 2.4000001 25.5
5.5 2.3 25.5
5.5 2.2 25.5
5.5 2.0999999 25.5
5.5 2 25.5
5.5 1.9 25.5
5.5 1.8 25.5
5.5 1.7 25.5
5.5 1.6 25.5
5.5 1.5 25.5
5.5 1.4 25.5
5.5 1.3 25.5
5.5 1.2 25.5
5.5 1.1 25.5
5.5 1 25.5
5.5 0.89999998 25.5
5.5 0.80000001 25.5
5.5 0.69999999 25.5
5.5 0.60000002 25.5
5.5 0.5 25.5
5.5 0.40000001 25.5
5.5 0.30000001 25.5
5.5 0.2 25.5
5.5 0.1 25.5
5.5999999 13.2 0
5.5999999 13.1 13.8873
5.5999999 13 14.473801
5.5999999 12.9 14.4891
5.5999999 12.8 14.764501
5.5999999 12.7 14.8104
5.5999999 12.6 15.1878
5.5999999 12.5 15.447901
5.5999999 12.4 15.463201
5.5999999 12.3 15.677401
5.5999999 12.2 16.0548
5.5999999 12.1 16.1364
5.5999999 12 16.457699
5.5999999 11.9 16.544399
5.5999999 11.8 16.896299
5.5999999 11.7 17.136
5.5999999 11.6 17.5389
5.5999999 11.5 17.778599
5.5999999 11.4 17.8806
5.5999999 11.3 25.5
5.5999999 11.2 25.5
5.5999999 11.1 25.5
5.5999999 11 25.5
5.5999999 10.9 25.5
5.5999999 10.8 25.5
5.5999999 10.7 25.5
5.5999999 10.6 18.365101
5.5999999 10.5 18.5334
5.5999999 10.4 18.594601
5.5999999 10.3 18.635401
5.5999999 10.2 18.9006
5.5999999 10.1 18.910801
5.5999999 10 18.9618
5.5999999 9.8999996 19.033199
5.5999999 9.8000002 19.028101
5.5999999 9.6999998 18.956699
5.5999999 9.6000004 18.793499
5.5999999 9.5 18.6609
5.5999999 9.3999996 19.0536
5.5999999 9.3000002 19.614599
5.5999999 9.1999998 19.635
5.5999999 9.1000004 19.527901
5.5999999 9 19.497301
5.5999999 8.8999996 25.5
5.5999999 8.8000002 25.5
5.5999999 8.6999998 18.365101
5.5999999 8.6000004 19.074001
5.5999999 8.5 19.1658
5.5999999 8.3999996 19.0842
5.5999999 8.3000002 19.0026
5.5999999 8.1999998 19.0026
5.5999999 8.1000004 19.125
5.5999999 8 19.028101
5.5999999 7.9000001 19.0791
5.5999999 7.8000002 20.466299
5.5999999 7.6999998 21.7209
5.5999999 7.5999999 21.6546
5.5999999 7.5 21.358799
5.5999999 7.4000001 21.164999
5.5999999 7.3000002 21.241499
5.5999999 7.1999998 21.129299
5.5999999 7.0999999 25.5
5.5999999 7 25.5
5.5999999 6.9000001 19.4718
5.5999999 6.8000002 19.808399
5.5999999 6.6999998 19.680901
5.5999999 6.5999999 19.6248
5.5999999 6.5 19.578899
5.5999999 6.4000001 19.6299
5.5999999 6.3000002 19.7064
5.5999999 6.1999998 20.2572
5.5999999 6.0999999 21.7209
5.5999999 6 22.1952
5.5999999 5.9000001 21.6852
5.5999999 5.8000002 22.725599
5.5999999 5.6999998 22.7052
5.5999999 5.5999999 22.725599
5.5999999 5.5 23.179501
5.5999999 5.4000001 25.5
5.5999999 5.3000002 25.5
5.5999999 5.1999998 25.5
5.5999999 5.0999999 25.5
5.5999999 5 25.5
5.5999999 4.9000001 25.5
5.5999999 4.8000002 25.5
5.5999999 4.6999998 25.5
5.5999999 4.5999999 25.5
5.5999999 4.5 25.5
5.5999999 4.4000001 25.5
5.5999999 4.3000002 25.5
5.5999999 4.1999998 25.5
5.5999999 4.0999999 25.5
5.5999999 4 25.5
5.5999999 3.9000001 25.5
5.5999999 3.8 25.5
5.5999999 3.7 25.5
5.5999999 3.5999999 25.5
5.5999999 3.5 25.5
5.5999999 3.4000001 25.5
5.5999999 3.3 25.5
5.5999999 3.2 25.5
5.5999999 3.0999999 25.5
5.5999999 3 25.5
5.5999999 2.9000001 25.5
5.5999999 2.8 25.5
5.5999999 2.7 25.5
5.5999999 2.5999999 25.5
5.5999999 2.5 25.5
5.5999999 2.4000001 25.5
5.5999999 2.3 25.5
5.5999999 2.2 25.5
5.5999999 2.0999999 25.5
5.5999999 2 25.5
5.5999999 1.9 25.5
5.5999999 1.8 25.5
5.5999999 1.7 25.5
5.5999999 1.6 25.5
5.5999999 1.5 25.5
5.5999999 1.4 25.5
5.5999999 1.3 25.5
5.5999999 1.2 25.5
5.5999999 1.1 25.5
5.5999999 1 25.5
5.5999999 0.89999998 25.5
5.5999999 0.80000001 25.5
5.5999999 0.69999999 25.5
5.5999999 0.60000002 25.5
5.5999999 0.5 25.5
5.5999999 0.40000001 25.5
5.5999999 0.30000001 25.5
5.5999999 0.2 25.5
5.5999999 0.1 25.5
5.6999998 13.2 -10737418
5.6999998 13.1 13.8873
5.6999998 13 14.1627
5.6999998 12.9 14.545199
5.6999998 12.8 14.682899
5.6999998 12.7 14.927699
5.6999998 12.6 15.386701
5.6999998 12.5 15.4938
